ply
format ascii 1.0
element vertex 1180
property float x
property float y
property float z
property uchar red
property uchar green
property uchar blue
end_header
7.687500 1.812500 -15.500000 24 43 98 
7.750000 1.812500 -15.500000 26 41 89 
7.812500 1.812500 -15.500000 24 41 91 
7.875000 1.812500 -15.500000 31 57 113 
7.937500 1.812500 -15.500000 60 98 162 
8.000000 1.812500 -15.500000 98 148 216 
8.062500 1.812500 -15.500000 135 192 249 
8.125000 1.812500 -15.500000 162 221 255 
8.187500 1.812500 -15.500000 177 235 255 
8.250000 1.812500 -15.500000 185 240 255 
8.312500 1.812500 -15.500000 189 242 255 
8.375000 1.812500 -15.500000 190 243 255 
8.437500 1.812500 -15.500000 189 243 255 
8.500000 1.812500 -15.500000 184 239 255 
8.562500 1.812500 -15.500000 174 230 254 
8.625000 1.812500 -15.500000 154 209 250 
8.687500 1.812500 -15.500000 122 173 234 
8.750000 1.812500 -15.500000 80 127 202 
8.812500 1.812500 -15.500000 52 88 164 
8.875000 1.812500 -15.500000 34 59 127 
8.937500 1.812500 -15.500000 26 44 99 
9.000000 1.812500 -15.500000 23 37 84 
9.062500 1.812500 -15.500000 24 38 84 
9.125000 1.812500 -15.500000 30 49 101 
9.187500 1.812500 -15.500000 53 85 144 
0.556522 0.486957 -4.313044 72 83 101 
0.573913 0.486957 -4.313044 73 84 102 
0.591304 0.486957 -4.313044 72 83 103 
0.608696 0.486957 -4.313044 71 81 104 
0.626087 0.486957 -4.313044 70 80 104 
0.632479 0.478632 -4.239316 69 81 102 
0.649573 0.478632 -4.239316 70 82 100 
0.655462 0.470588 -4.168067 70 82 99 
0.672269 0.470588 -4.168067 71 83 99 
0.689076 0.470588 -4.168067 72 83 99 
0.694215 0.462810 -4.099174 73 84 100 
0.710744 0.462810 -4.099174 72 84 100 
0.715447 0.455285 -4.032520 72 83 100 
0.731707 0.455285 -4.032520 69 80 97 
0.747967 0.455285 -4.032520 66 77 93 
0.766917 0.421053 -3.729323 66 74 95 
0.770370 0.414815 -3.674074 66 75 98 
1.600000 0.533333 -4.723810 23 42 97 
1.619048 0.533333 -4.723810 24 44 95 
1.638095 0.533333 -4.723810 25 49 106 
1.689320 0.543689 -4.815534 39 71 140 
1.708738 0.543689 -4.815534 75 118 193 
5.562500 1.750000 -15.500000 119 172 237 
1.805825 0.543689 -4.815534 191 245 255 
1.825243 0.543689 -4.815534 192 245 254 
6.062500 1.750000 -15.500000 182 238 253 
1.866667 0.533333 -4.723810 165 221 252 
1.885714 0.533333 -4.723810 133 185 240 
1.904762 0.533333 -4.723810 86 132 207 
1.905660 0.528302 -4.679245 49 85 166 
1.446808 0.397163 -3.517730 29 53 123 
1.440559 0.391608 -3.468531 23 41 93 
1.454545 0.391608 -3.468531 24 40 84 
1.468531 0.391608 -3.468531 23 42 91 
1.503546 0.397163 -3.517730 31 54 118 
1.517730 0.397163 -3.517730 58 93 165 
1.531915 0.397163 -3.517730 96 146 216 
1.546099 0.397163 -3.517730 137 196 247 
1.560284 0.397163 -3.517730 166 225 254 
1.574468 0.397163 -3.517730 183 239 254 
1.588652 0.397163 -3.517730 192 245 254 
1.602837 0.397163 -3.517730 193 246 253 
1.640288 0.402878 -3.568345 193 246 253 
7.187500 1.750000 -15.500000 193 246 253 
7.250000 1.750000 -15.500000 191 243 254 
7.312500 1.750000 -15.500000 179 234 255 
7.375000 1.750000 -15.500000 157 213 250 
7.437500 1.750000 -15.500000 121 173 230 
7.500000 1.750000 -15.500000 78 124 195 
7.562500 1.750000 -15.500000 47 82 156 
7.625000 1.750000 -15.500000 28 54 120 
7.687500 1.750000 -15.500000 24 44 99 
7.750000 1.750000 -15.500000 25 41 89 
7.812500 1.750000 -15.500000 23 41 89 
7.875000 1.750000 -15.500000 29 56 109 
7.937500 1.750000 -15.500000 59 97 158 
8.000000 1.750000 -15.500000 98 146 212 
8.062500 1.750000 -15.500000 135 190 246 
8.125000 1.750000 -15.500000 162 219 255 
8.187500 1.750000 -15.500000 179 235 254 
8.250000 1.750000 -15.500000 186 240 254 
8.312500 1.750000 -15.500000 189 242 255 
8.375000 1.750000 -15.500000 189 243 255 
8.437500 1.750000 -15.500000 189 242 255 
8.500000 1.750000 -15.500000 184 239 255 
8.562500 1.750000 -15.500000 173 229 254 
8.625000 1.750000 -15.500000 154 210 251 
8.687500 1.750000 -15.500000 124 177 236 
8.750000 1.750000 -15.500000 82 129 203 
8.812500 1.750000 -15.500000 52 90 166 
8.875000 1.750000 -15.500000 35 61 131 
8.937500 1.750000 -15.500000 26 46 106 
9.000000 1.750000 -15.500000 23 40 91 
9.062500 1.750000 -15.500000 24 40 91 
9.125000 1.750000 -15.500000 28 48 106 
9.187500 1.750000 -15.500000 52 84 147 
0.613861 0.534653 -4.910891 78 90 114 
0.556522 0.469565 -4.313044 78 89 111 
0.640777 0.524272 -4.815534 78 89 111 
0.660194 0.524272 -4.815534 78 89 111 
0.666667 0.514286 -4.723810 77 88 113 
0.637168 0.477876 -4.389380 77 87 113 
0.654867 0.477876 -4.389380 77 89 111 
0.660870 0.469565 -4.313044 79 91 110 
0.678261 0.469565 -4.313044 81 92 110 
0.683761 0.461538 -4.239316 82 93 109 
0.689076 0.453782 -4.168067 83 93 108 
0.705882 0.453782 -4.168067 83 93 108 
0.710744 0.446281 -4.099174 82 93 108 
0.727273 0.446281 -4.099174 80 92 107 
0.743802 0.446281 -4.099174 78 88 105 
0.778626 0.412214 -3.786260 70 80 102 
0.781955 0.406015 -3.729323 70 81 104 
0.796992 0.406015 -3.729323 69 86 115 
1.991111 0.640000 -5.878519 23 41 93 
2.098765 0.666667 -6.123457 25 42 91 
2.038518 0.640000 -5.878519 26 47 102 
2.096385 0.650602 -5.975904 39 69 137 
2.022989 0.620690 -5.701149 74 115 191 
5.562500 1.687500 -15.500000 117 169 236 
5.625000 1.687500 -15.500000 151 211 253 
5.687500 1.687500 -15.500000 172 234 255 
4.279070 1.255814 -11.534883 185 243 255 
4.325582 1.255814 -11.534883 190 246 254 
6.000000 1.687500 -15.500000 190 246 252 
4.511628 1.255814 -11.534883 182 240 252 
1.866667 0.514286 -4.723810 164 222 250 
1.384615 0.377622 -3.468531 133 188 239 
1.398601 0.377622 -3.468531 87 136 208 
1.412587 0.377622 -3.468531 52 89 167 
1.426573 0.377622 -3.468531 31 56 126 
1.440559 0.377622 -3.468531 23 42 97 
1.454545 0.377622 -3.468531 23 41 88 
1.468531 0.377622 -3.468531 22 42 94 
1.482517 0.377622 -3.468531 29 53 117 
1.496503 0.377622 -3.468531 56 91 162 
1.510489 0.377622 -3.468531 95 145 213 
1.546099 0.382979 -3.517730 136 194 246 
1.560284 0.382979 -3.517730 164 223 255 
1.574468 0.382979 -3.517730 182 238 255 
4.977778 1.200000 -11.022223 191 244 254 
7.062500 1.687500 -15.500000 193 245 254 
7.125000 1.687500 -15.500000 193 246 254 
7.187500 1.687500 -15.500000 193 246 254 
7.250000 1.687500 -15.500000 190 242 254 
7.312500 1.687500 -15.500000 179 233 255 
7.375000 1.687500 -15.500000 158 213 252 
7.437500 1.687500 -15.500000 123 176 233 
7.500000 1.687500 -15.500000 80 126 198 
7.562500 1.687500 -15.500000 47 85 161 
7.625000 1.687500 -15.500000 29 59 129 
7.687500 1.687500 -15.500000 24 47 109 
7.750000 1.687500 -15.500000 24 43 99 
7.812500 1.687500 -15.500000 22 45 100 
7.875000 1.687500 -15.500000 28 59 117 
7.937500 1.687500 -15.500000 55 97 160 
8.000000 1.687500 -15.500000 95 144 210 
8.062500 1.687500 -15.500000 134 188 244 
8.125000 1.687500 -15.500000 162 218 254 
8.187500 1.687500 -15.500000 179 234 254 
8.250000 1.687500 -15.500000 187 239 254 
8.312500 1.687500 -15.500000 189 242 253 
8.375000 1.687500 -15.500000 189 243 253 
8.437500 1.687500 -15.500000 188 242 253 
8.500000 1.687500 -15.500000 184 239 254 
8.562500 1.687500 -15.500000 174 231 255 
8.625000 1.687500 -15.500000 156 213 252 
8.687500 1.687500 -15.500000 127 181 239 
8.750000 1.687500 -15.500000 88 137 211 
8.812500 1.687500 -15.500000 58 100 180 
8.875000 1.687500 -15.500000 40 73 152 
8.937500 1.687500 -15.500000 31 59 132 
9.000000 1.687500 -15.500000 28 53 119 
9.062500 1.687500 -15.500000 30 54 119 
9.125000 1.687500 -15.500000 36 63 133 
9.187500 1.687500 -15.500000 59 93 168 
0.613861 0.514852 -4.910891 80 92 119 
0.633663 0.514852 -4.910891 79 91 117 
0.653465 0.514852 -4.910891 79 90 116 
0.673267 0.514852 -4.910891 79 90 116 
0.679612 0.504854 -4.815534 79 90 116 
0.699029 0.504854 -4.815534 79 89 116 
0.718447 0.504854 -4.815534 81 92 115 
0.722689 0.436975 -4.168067 89 99 111 
0.727273 0.429752 -4.099174 86 96 110 
0.743802 0.429752 -4.099174 83 91 109 
0.760331 0.429752 -4.099174 78 86 106 
0.781955 0.390977 -3.729323 70 83 107 
0.796992 0.390977 -3.729323 71 87 116 
2.072289 0.626506 -5.975904 23 48 105 
2.096385 0.626506 -5.975904 37 69 138 
1.230769 0.363636 -3.468531 71 113 189 
1.236111 0.361111 -3.444444 115 167 233 
5.625000 1.625000 -15.500000 149 210 252 
2.983607 0.852459 -8.131147 171 233 255 
1.515963 0.428424 -4.086509 184 243 255 
1.532441 0.428424 -4.086509 189 245 252 
4.511628 1.209302 -11.534883 182 241 253 
1.370629 0.363636 -3.468531 165 224 250 
1.384615 0.363636 -3.468531 135 191 239 
1.398601 0.363636 -3.468531 91 142 211 
1.412587 0.363636 -3.468531 55 96 173 
1.426573 0.363636 -3.468531 31 62 134 
1.454545 0.363636 -3.468531 23 48 106 
1.468531 0.363636 -3.468531 23 50 110 
1.482517 0.363636 -3.468531 29 60 126 
1.496503 0.363636 -3.468531 54 95 165 
1.510489 0.363636 -3.468531 92 145 212 
1.524476 0.363636 -3.468531 132 191 244 
1.538462 0.363636 -3.468531 162 222 254 
3.171429 0.742857 -7.085714 180 238 254 
5.209302 1.209302 -11.534883 188 244 254 
7.062500 1.625000 -15.500000 191 245 255 
7.125000 1.625000 -15.500000 192 246 254 
7.187500 1.625000 -15.500000 191 245 254 
7.250000 1.625000 -15.500000 189 242 255 
7.312500 1.625000 -15.500000 180 234 255 
7.375000 1.625000 -15.500000 161 215 252 
7.437500 1.625000 -15.500000 130 183 238 
7.500000 1.625000 -15.500000 89 138 209 
7.562500 1.625000 -15.500000 58 101 180 
7.625000 1.625000 -15.500000 42 78 158 
7.687500 1.625000 -15.500000 38 69 145 
7.750000 1.625000 -15.500000 39 67 139 
7.812500 1.625000 -15.500000 36 69 139 
7.875000 1.625000 -15.500000 42 82 151 
7.937500 1.625000 -15.500000 65 113 183 
8.000000 1.625000 -15.500000 99 152 221 
8.062500 1.625000 -15.500000 136 191 247 
8.125000 1.625000 -15.500000 161 218 255 
8.187500 1.625000 -15.500000 178 233 255 
8.250000 1.625000 -15.500000 186 239 255 
8.312500 1.625000 -15.500000 189 241 254 
8.375000 1.625000 -15.500000 189 242 253 
8.437500 1.625000 -15.500000 188 241 253 
8.500000 1.625000 -15.500000 184 240 253 
8.562500 1.625000 -15.500000 175 233 253 
8.625000 1.625000 -15.500000 160 220 253 
8.687500 1.625000 -15.500000 140 197 246 
8.750000 1.625000 -15.500000 111 165 229 
8.812500 1.625000 -15.500000 87 136 211 
8.875000 1.625000 -15.500000 73 116 196 
8.937500 1.625000 -15.500000 68 109 186 
9.000000 1.625000 -15.500000 68 108 180 
9.062500 1.625000 -15.500000 71 111 181 
9.125000 1.625000 -15.500000 77 116 191 
7.945946 1.405405 -13.405405 90 133 209 
8.000000 1.405405 -13.405405 110 162 231 
0.618557 0.515464 -5.113402 79 93 121 
0.626263 0.505050 -5.010101 79 92 121 
0.646465 0.505050 -5.010101 78 92 120 
0.666667 0.505050 -5.010101 77 90 118 
0.673267 0.495050 -4.910891 78 90 117 
0.679612 0.485437 -4.815534 79 90 117 
0.699029 0.485437 -4.815534 79 91 117 
0.718447 0.485437 -4.815534 82 93 117 
0.739496 0.420168 -4.168067 89 97 111 
0.756303 0.420168 -4.168067 85 92 111 
0.790698 0.387597 -3.844961 70 82 106 
0.781955 0.375940 -3.729323 71 84 108 
0.796992 0.375940 -3.729323 72 87 117 
2.022989 0.574713 -5.701149 71 117 197 
1.236111 0.347222 -3.444444 113 166 234 
1.250000 0.347222 -3.444444 148 208 251 
1.463317 0.402010 -3.987940 170 231 254 
1.515963 0.411946 -4.086509 183 241 254 
4.511628 1.162791 -11.534883 183 241 254 
6.125000 1.562500 -15.500000 167 227 253 
6.187500 1.562500 -15.500000 142 199 245 
1.379310 0.344828 -3.420690 103 156 223 
1.638945 0.405680 -4.024341 69 117 196 
1.658537 0.406504 -4.032520 49 90 171 
1.468531 0.349650 -3.468531 46 84 157 
1.472222 0.347222 -3.444444 51 93 167 
1.486111 0.347222 -3.444444 71 119 194 
1.510489 0.349650 -3.468531 102 159 230 
1.524476 0.349650 -3.468531 135 197 249 
1.538462 0.349650 -3.468531 162 224 254 
3.415385 0.769231 -7.630769 180 239 254 
4.977778 1.111111 -11.022223 187 244 254 
7.062500 1.562500 -15.500000 190 245 253 
7.125000 1.562500 -15.500000 190 245 253 
7.187500 1.562500 -15.500000 190 244 253 
7.250000 1.562500 -15.500000 188 242 254 
7.312500 1.562500 -15.500000 181 236 254 
7.375000 1.562500 -15.500000 167 223 252 
7.437500 1.562500 -15.500000 143 201 246 
7.500000 1.562500 -15.500000 113 170 231 
7.562500 1.562500 -15.500000 91 144 216 
7.625000 1.562500 -15.500000 80 128 205 
7.687500 1.562500 -15.500000 79 123 200 
7.750000 1.562500 -15.500000 81 123 199 
7.812500 1.562500 -15.500000 81 126 199 
7.875000 1.562500 -15.500000 85 133 205 
7.937500 1.562500 -15.500000 97 151 221 
8.000000 1.562500 -15.500000 120 177 241 
8.062500 1.562500 -15.500000 145 204 253 
8.125000 1.562500 -15.500000 164 222 255 
8.187500 1.562500 -15.500000 178 235 255 
8.250000 1.562500 -15.500000 183 239 255 
8.312500 1.562500 -15.500000 188 241 255 
8.375000 1.562500 -15.500000 189 241 255 
8.437500 1.562500 -15.500000 188 240 254 
8.500000 1.562500 -15.500000 185 240 253 
8.562500 1.562500 -15.500000 178 237 253 
8.625000 1.562500 -15.500000 169 229 253 
8.687500 1.562500 -15.500000 158 217 253 
8.750000 1.562500 -15.500000 143 200 247 
8.812500 1.562500 -15.500000 129 186 241 
8.875000 1.562500 -15.500000 123 177 238 
8.937500 1.562500 -15.500000 121 174 236 
9.000000 1.562500 -15.500000 120 175 232 
9.062500 1.562500 -15.500000 122 177 233 
9.125000 1.562500 -15.500000 127 178 239 
7.945946 1.351351 -13.405405 134 186 244 
8.000000 1.351351 -13.405405 142 199 250 
0.597938 0.494845 -5.113402 81 93 124 
0.618557 0.494845 -5.113402 80 92 122 
0.639175 0.494845 -5.113402 78 92 121 
0.659794 0.494845 -5.113402 78 92 121 
0.680412 0.494845 -5.113402 77 91 120 
0.701031 0.494845 -5.113402 77 92 120 
0.699029 0.466019 -4.815534 77 92 118 
0.718447 0.466019 -4.815534 80 93 119 
0.737864 0.466019 -4.815534 85 96 120 
0.796460 0.424779 -4.389380 84 91 112 
0.793893 0.366412 -3.786260 71 84 108 
0.796992 0.360902 -3.729323 71 84 117 
1.463317 0.385930 -3.987940 171 231 254 
1.479397 0.385930 -3.987940 184 240 253 
2.895522 0.716418 -7.402985 184 242 255 
2.925373 0.716418 -7.402985 173 232 255 
4.125000 1.000000 -10.333333 155 214 252 
1.379310 0.331034 -3.420690 129 188 241 
1.432624 0.340426 -3.517730 106 162 229 
1.446808 0.340426 -3.517730 92 145 219 
1.460993 0.340426 -3.517730 90 140 214 
1.454545 0.335664 -3.468531 91 142 215 
1.458333 0.333333 -3.444444 94 146 217 
1.472222 0.333333 -3.444444 98 152 221 
1.486111 0.333333 -3.444444 108 165 232 
1.510489 0.335664 -3.468531 127 187 248 
1.524476 0.335664 -3.468531 149 210 253 
1.538462 0.335664 -3.468531 168 228 254 
3.684647 0.796681 -8.232366 181 238 255 
4.571429 0.979592 -10.122449 187 243 255 
7.062500 1.500000 -15.500000 189 244 254 
7.125000 1.500000 -15.500000 190 245 253 
7.187500 1.500000 -15.500000 190 244 253 
7.250000 1.500000 -15.500000 188 242 254 
7.312500 1.500000 -15.500000 184 239 254 
7.375000 1.500000 -15.500000 176 232 254 
7.437500 1.500000 -15.500000 162 220 252 
7.500000 1.500000 -15.500000 145 206 248 
7.562500 1.500000 -15.500000 135 194 244 
7.625000 1.500000 -15.500000 129 186 242 
7.687500 1.500000 -15.500000 128 183 241 
7.750000 1.500000 -15.500000 129 183 241 
7.812500 1.500000 -15.500000 131 185 242 
7.875000 1.500000 -15.500000 134 189 243 
7.937500 1.500000 -15.500000 139 196 246 
8.000000 1.500000 -15.500000 149 207 253 
8.062500 1.500000 -15.500000 161 220 255 
8.125000 1.500000 -15.500000 172 230 255 
8.187500 1.500000 -15.500000 180 237 254 
8.250000 1.500000 -15.500000 185 240 254 
8.312500 1.500000 -15.500000 188 241 254 
8.375000 1.500000 -15.500000 189 240 254 
8.437500 1.500000 -15.500000 188 240 254 
8.500000 1.500000 -15.500000 187 240 254 
8.562500 1.500000 -15.500000 184 239 254 
8.625000 1.500000 -15.500000 178 236 254 
8.687500 1.500000 -15.500000 173 231 254 
8.750000 1.500000 -15.500000 168 225 252 
8.812500 1.500000 -15.500000 163 220 252 
8.875000 1.500000 -15.500000 161 217 253 
8.937500 1.500000 -15.500000 161 217 253 
9.000000 1.500000 -15.500000 160 218 252 
9.062500 1.500000 -15.500000 162 219 252 
9.125000 1.500000 -15.500000 164 219 253 
8.400000 1.371429 -14.171429 166 221 254 
8.000000 1.297297 -13.405405 169 224 254 
0.597938 0.474227 -5.113402 80 92 124 
0.618557 0.474227 -5.113402 79 92 122 
0.639175 0.474227 -5.113402 78 92 121 
0.659794 0.474227 -5.113402 77 92 121 
0.694737 0.484211 -5.221053 77 92 120 
0.718447 0.446602 -4.815534 78 92 119 
0.723810 0.438095 -4.723810 81 93 119 
0.742857 0.438095 -4.723810 83 94 118 
0.793893 0.351145 -3.786260 71 83 107 
0.809160 0.351145 -3.786260 71 85 116 
0.824427 0.351145 -3.786260 74 94 136 
4.083333 0.958333 -10.333333 181 239 255 
2.885246 0.670310 -7.227687 170 229 254 
1.388889 0.319444 -3.444444 157 217 252 
1.638945 0.373225 -4.024341 145 205 248 
1.446808 0.326241 -3.517730 139 197 246 
1.440559 0.321678 -3.468531 140 197 247 
1.454545 0.321678 -3.468531 141 197 248 
1.448276 0.317241 -3.420690 142 199 249 
1.462069 0.317241 -3.420690 142 201 248 
2.582202 0.555053 -5.984917 146 207 251 
3.323077 0.707692 -7.630769 154 214 254 
2.630468 0.555053 -5.984917 167 225 254 
3.651452 0.763485 -8.232366 178 234 255 
3.746835 0.776371 -8.371308 184 239 255 
5.463415 1.121951 -12.097561 189 243 255 
7.062500 1.437500 -15.500000 191 244 254 
7.125000 1.437500 -15.500000 191 245 253 
7.187500 1.437500 -15.500000 190 243 253 
7.250000 1.437500 -15.500000 190 242 254 
7.312500 1.437500 -15.500000 188 241 254 
7.375000 1.437500 -15.500000 185 239 253 
7.437500 1.437500 -15.500000 177 234 253 
7.500000 1.437500 -15.500000 169 229 253 
7.562500 1.437500 -15.500000 165 225 253 
7.625000 1.437500 -15.500000 163 222 253 
7.687500 1.437500 -15.500000 163 221 254 
7.750000 1.437500 -15.500000 163 221 254 
7.812500 1.437500 -15.500000 165 221 254 
7.875000 1.437500 -15.500000 166 223 254 
7.937500 1.437500 -15.500000 168 225 254 
8.000000 1.437500 -15.500000 170 228 255 
8.062500 1.437500 -15.500000 174 232 255 
8.125000 1.437500 -15.500000 179 236 254 
8.187500 1.437500 -15.500000 183 238 253 
8.250000 1.437500 -15.500000 186 240 252 
8.312500 1.437500 -15.500000 188 241 253 
8.375000 1.437500 -15.500000 187 240 253 
8.437500 1.437500 -15.500000 187 240 254 
8.500000 1.437500 -15.500000 187 239 254 
8.562500 1.437500 -15.500000 186 239 254 
8.625000 1.437500 -15.500000 184 239 255 
8.687500 1.437500 -15.500000 182 239 255 
8.750000 1.437500 -15.500000 180 237 254 
8.812500 1.437500 -15.500000 179 234 254 
8.875000 1.437500 -15.500000 179 233 254 
8.937500 1.437500 -15.500000 179 234 254 
9.000000 1.437500 -15.500000 178 234 254 
9.062500 1.437500 -15.500000 179 235 254 
9.125000 1.437500 -15.500000 180 235 254 
9.187500 1.437500 -15.500000 181 234 254 
8.000000 1.243243 -13.405405 181 234 255 
8.054054 1.243243 -13.405405 181 235 254 
0.571429 0.448980 -5.061224 79 92 122 
0.597938 0.453608 -5.113402 79 92 122 
0.618557 0.453608 -5.113402 78 92 121 
0.652632 0.463158 -5.221053 77 92 120 
0.673684 0.463158 -5.221053 75 91 118 
0.694737 0.463158 -5.221053 75 90 117 
0.718447 0.427184 -4.815534 76 88 116 
0.737864 0.427184 -4.815534 77 88 115 
0.742857 0.419048 -4.723810 77 89 115 
0.761905 0.419048 -4.723810 77 88 112 
0.806202 0.341085 -3.844961 70 80 103 
0.809160 0.335878 -3.786260 70 83 111 
0.824427 0.335878 -3.786260 74 94 134 
3.478261 0.765217 -8.626087 177 234 254 
3.089866 0.673040 -7.586998 172 230 254 
3.120459 0.673040 -7.586998 170 228 253 
1.460993 0.312057 -3.517730 170 227 254 
1.454545 0.307692 -3.468531 171 227 254 
1.448276 0.303448 -3.420690 171 227 254 
2.959860 0.614311 -6.924956 172 228 254 
3.292308 0.676923 -7.630769 173 230 254 
5.837838 1.189189 -13.405405 175 233 254 
5.069767 1.023256 -11.534883 180 235 255 
5.365854 1.073171 -12.097561 185 238 255 
4.530612 0.897959 -10.122449 188 241 255 
7.000000 1.375000 -15.500000 191 243 254 
7.062500 1.375000 -15.500000 192 243 253 
7.125000 1.375000 -15.500000 192 243 252 
7.187500 1.375000 -15.500000 190 242 253 
7.250000 1.375000 -15.500000 190 242 254 
7.312500 1.375000 -15.500000 190 241 253 
7.375000 1.375000 -15.500000 189 242 254 
7.437500 1.375000 -15.500000 186 241 254 
7.500000 1.375000 -15.500000 182 239 254 
7.562500 1.375000 -15.500000 179 237 254 
7.625000 1.375000 -15.500000 177 236 254 
7.687500 1.375000 -15.500000 178 236 254 
7.750000 1.375000 -15.500000 178 235 253 
7.812500 1.375000 -15.500000 179 235 254 
7.875000 1.375000 -15.500000 179 235 255 
7.937500 1.375000 -15.500000 180 236 255 
8.000000 1.375000 -15.500000 180 237 255 
8.062500 1.375000 -15.500000 181 238 254 
8.125000 1.375000 -15.500000 183 239 253 
8.187500 1.375000 -15.500000 185 239 252 
8.250000 1.375000 -15.500000 187 240 253 
8.312500 1.375000 -15.500000 187 241 254 
8.375000 1.375000 -15.500000 185 241 253 
8.437500 1.375000 -15.500000 185 240 254 
8.500000 1.375000 -15.500000 185 240 254 
8.562500 1.375000 -15.500000 184 239 254 
8.625000 1.375000 -15.500000 184 240 255 
8.687500 1.375000 -15.500000 183 240 255 
8.750000 1.375000 -15.500000 182 240 254 
8.812500 1.375000 -15.500000 183 238 255 
8.875000 1.375000 -15.500000 183 238 255 
8.937500 1.375000 -15.500000 183 239 255 
9.000000 1.375000 -15.500000 182 238 254 
9.062500 1.375000 -15.500000 182 238 254 
9.125000 1.375000 -15.500000 182 238 254 
9.187500 1.375000 -15.500000 184 238 254 
8.000000 1.189189 -13.405405 184 237 254 
7.641026 1.128205 -12.717949 181 238 255 
0.577320 0.432990 -5.113402 74 87 114 
0.597938 0.432990 -5.113402 73 87 114 
0.631579 0.442105 -5.221053 72 87 114 
0.652632 0.442105 -5.221053 72 86 113 
0.673684 0.442105 -5.221053 71 85 111 
0.718447 0.407767 -4.815534 71 80 107 
0.723810 0.400000 -4.723810 70 80 107 
0.728972 0.392523 -4.635514 69 81 107 
0.747664 0.392523 -4.635514 67 81 104 
0.793388 0.347107 -4.099174 66 72 97 
0.796748 0.341463 -4.032520 65 73 96 
0.806202 0.325581 -3.844961 64 74 95 
0.821705 0.325581 -3.844961 64 78 105 
0.824427 0.320611 -3.786260 69 90 129 
5.941176 1.235294 -14.588235 183 239 253 
3.547826 0.730435 -8.626087 182 238 253 
3.349593 0.682927 -8.065041 183 238 255 
2.959860 0.586387 -6.924956 185 238 255 
2.987784 0.586387 -6.924956 186 239 255 
3.746835 0.708861 -8.371308 190 242 255 
4.703412 0.881890 -10.414699 190 242 254 
7.062500 1.312500 -15.500000 191 242 253 
7.125000 1.312500 -15.500000 190 242 254 
7.187500 1.312500 -15.500000 189 242 255 
7.250000 1.312500 -15.500000 188 241 255 
7.312500 1.312500 -15.500000 189 241 255 
7.375000 1.312500 -15.500000 189 241 255 
7.437500 1.312500 -15.500000 188 241 255 
7.500000 1.312500 -15.500000 185 241 255 
7.562500 1.312500 -15.500000 183 240 255 
7.625000 1.312500 -15.500000 182 239 255 
7.687500 1.312500 -15.500000 182 239 254 
7.750000 1.312500 -15.500000 182 239 253 
7.812500 1.312500 -15.500000 182 238 253 
7.875000 1.312500 -15.500000 182 238 253 
7.937500 1.312500 -15.500000 183 239 254 
8.000000 1.312500 -15.500000 183 239 254 
8.062500 1.312500 -15.500000 182 239 254 
8.125000 1.312500 -15.500000 183 239 254 
8.187500 1.312500 -15.500000 184 239 254 
8.250000 1.312500 -15.500000 185 239 254 
8.312500 1.312500 -15.500000 183 240 254 
8.375000 1.312500 -15.500000 182 240 254 
8.437500 1.312500 -15.500000 182 239 254 
8.500000 1.312500 -15.500000 182 239 254 
8.562500 1.312500 -15.500000 182 239 255 
8.625000 1.312500 -15.500000 181 238 255 
8.687500 1.312500 -15.500000 181 238 255 
8.750000 1.312500 -15.500000 181 238 254 
8.812500 1.312500 -15.500000 181 238 254 
8.875000 1.312500 -15.500000 181 237 254 
8.937500 1.312500 -15.500000 181 239 254 
9.000000 1.312500 -15.500000 181 239 254 
9.062500 1.312500 -15.500000 180 238 253 
9.125000 1.312500 -15.500000 181 238 253 
9.187500 1.312500 -15.500000 181 237 253 
8.457143 1.200000 -14.171429 181 236 252 
7.268293 1.024390 -12.097561 179 237 254 
7.317073 1.024390 -12.097561 179 237 255 
0.556701 0.412371 -5.113402 63 75 102 
0.577320 0.412371 -5.113402 64 75 99 
0.597938 0.412371 -5.113402 62 74 98 
0.631579 0.421053 -5.221053 61 73 98 
0.652632 0.421053 -5.221053 61 73 97 
0.673684 0.421053 -5.221053 61 71 95 
0.747664 0.373832 -4.635514 57 70 90 
0.738739 0.360360 -4.468469 54 68 88 
0.756757 0.360360 -4.468469 54 67 87 
0.776860 0.330579 -4.099174 57 64 86 
0.780488 0.325203 -4.032520 56 63 84 
0.796748 0.325203 -4.032520 55 63 84 
0.800000 0.320000 -3.968000 54 64 84 
0.803150 0.314961 -3.905512 54 64 83 
0.818898 0.314961 -3.905512 54 64 84 
0.821705 0.310078 -3.844961 54 69 96 
0.824427 0.305344 -3.786260 61 83 123 
0.839695 0.305344 -3.786260 82 115 168 
0.854962 0.305344 -3.786260 120 162 220 
2.987784 0.558464 -6.924956 188 241 255 
3.877729 0.698690 -8.663755 187 240 254 
4.703412 0.839895 -10.414699 187 240 254 
7.062500 1.250000 -15.500000 186 240 254 
7.125000 1.250000 -15.500000 185 240 254 
7.187500 1.250000 -15.500000 184 240 255 
7.250000 1.250000 -15.500000 184 240 255 
7.312500 1.250000 -15.500000 184 239 255 
7.375000 1.250000 -15.500000 184 239 254 
7.437500 1.250000 -15.500000 183 239 255 
7.500000 1.250000 -15.500000 182 238 255 
7.562500 1.250000 -15.500000 181 238 255 
7.625000 1.250000 -15.500000 179 238 254 
7.687500 1.250000 -15.500000 179 237 253 
7.750000 1.250000 -15.500000 179 237 252 
7.812500 1.250000 -15.500000 180 237 252 
7.875000 1.250000 -15.500000 180 237 252 
7.937500 1.250000 -15.500000 181 237 254 
8.000000 1.250000 -15.500000 181 238 254 
8.062500 1.250000 -15.500000 181 237 254 
8.125000 1.250000 -15.500000 180 237 254 
8.187500 1.250000 -15.500000 180 237 254 
8.250000 1.250000 -15.500000 179 236 254 
8.312500 1.250000 -15.500000 178 237 254 
8.375000 1.250000 -15.500000 178 237 254 
8.437500 1.250000 -15.500000 178 237 254 
8.500000 1.250000 -15.500000 178 237 254 
8.562500 1.250000 -15.500000 178 237 254 
8.625000 1.250000 -15.500000 178 236 254 
8.687500 1.250000 -15.500000 178 236 254 
8.750000 1.250000 -15.500000 178 236 254 
8.812500 1.250000 -15.500000 177 236 254 
8.875000 1.250000 -15.500000 177 235 253 
8.937500 1.250000 -15.500000 176 236 253 
9.000000 1.250000 -15.500000 175 236 252 
9.062500 1.250000 -15.500000 175 235 251 
9.125000 1.250000 -15.500000 176 235 252 
9.187500 1.250000 -15.500000 176 235 252 
8.457143 1.142857 -14.171429 177 234 252 
6.930233 0.930233 -11.534883 176 234 253 
6.976744 0.930233 -11.534883 176 235 254 
0.536082 0.391753 -5.113402 54 67 99 
0.556701 0.391753 -5.113402 48 57 81 
0.577320 0.391753 -5.113402 48 57 77 
0.597938 0.391753 -5.113402 46 55 76 
0.631579 0.400000 -5.221053 46 55 75 
0.652632 0.400000 -5.221053 47 55 76 
0.673684 0.400000 -5.221053 48 54 75 
0.743363 0.336283 -4.389380 42 52 70 
0.747826 0.330435 -4.313044 43 52 70 
0.765217 0.330435 -4.313044 42 52 70 
2.000000 0.844444 -11.022223 41 51 69 
2.044445 0.844444 -11.022223 41 51 69 
2.000000 0.808511 -10.553191 43 50 69 
0.780488 0.308943 -4.032520 42 50 68 
0.796748 0.308943 -4.032520 41 50 67 
0.800000 0.304000 -3.968000 40 50 67 
0.803150 0.299213 -3.905512 40 50 67 
0.818898 0.299213 -3.905512 41 50 68 
0.834646 0.299213 -3.905512 42 56 82 
0.837209 0.294574 -3.844961 50 73 113 
0.839695 0.290076 -3.786260 76 108 163 
0.842105 0.285714 -3.729323 115 159 218 
0.857143 0.285714 -3.729323 151 202 249 
2.977391 0.528696 -6.900869 185 240 255 
3.005217 0.528696 -6.900869 184 240 255 
7.187500 1.187500 -15.500000 178 237 254 
7.250000 1.187500 -15.500000 177 236 254 
7.312500 1.187500 -15.500000 177 236 253 
7.375000 1.187500 -15.500000 177 236 253 
7.437500 1.187500 -15.500000 178 236 253 
7.500000 1.187500 -15.500000 178 236 254 
7.562500 1.187500 -15.500000 177 236 254 
7.625000 1.187500 -15.500000 175 235 253 
7.687500 1.187500 -15.500000 174 234 251 
7.750000 1.187500 -15.500000 174 235 251 
7.812500 1.187500 -15.500000 175 235 251 
7.875000 1.187500 -15.500000 177 235 252 
7.937500 1.187500 -15.500000 177 236 252 
8.000000 1.187500 -15.500000 177 236 251 
8.062500 1.187500 -15.500000 177 236 251 
8.125000 1.187500 -15.500000 177 236 251 
8.187500 1.187500 -15.500000 177 235 251 
8.250000 1.187500 -15.500000 176 235 252 
8.312500 1.187500 -15.500000 175 235 253 
8.375000 1.187500 -15.500000 175 235 254 
8.437500 1.187500 -15.500000 176 234 254 
8.500000 1.187500 -15.500000 175 234 253 
8.562500 1.187500 -15.500000 175 234 253 
8.625000 1.187500 -15.500000 176 234 253 
8.687500 1.187500 -15.500000 176 234 253 
8.750000 1.187500 -15.500000 175 234 253 
8.812500 1.187500 -15.500000 174 234 253 
8.875000 1.187500 -15.500000 173 234 252 
8.937500 1.187500 -15.500000 173 233 252 
9.000000 1.187500 -15.500000 172 234 252 
9.062500 1.187500 -15.500000 172 234 252 
9.125000 1.187500 -15.500000 173 234 253 
9.187500 1.187500 -15.500000 175 234 253 
8.457143 1.085714 -14.171429 175 233 254 
6.930233 0.883721 -11.534883 176 233 253 
6.666667 0.844444 -11.022223 176 233 254 
4.793651 0.603175 -7.873016 175 231 254 
0.515464 0.371134 -5.113402 66 83 120 
0.536082 0.371134 -5.113402 38 48 77 
0.556701 0.371134 -5.113402 32 39 59 
0.577320 0.371134 -5.113402 31 38 55 
0.610526 0.378947 -5.221053 31 38 54 
0.631579 0.378947 -5.221053 30 37 53 
0.652632 0.378947 -5.221053 30 36 52 
0.738739 0.324324 -4.468469 30 35 52 
0.743363 0.318584 -4.389380 29 35 52 
0.747826 0.313043 -4.313044 28 35 52 
2.046512 0.837209 -11.534883 28 35 51 
2.000000 0.800000 -11.022223 26 35 51 
2.044445 0.800000 -11.022223 26 35 51 
2.000000 0.765957 -10.553191 28 35 51 
2.042553 0.765957 -10.553191 28 35 50 
2.000000 0.734694 -10.122449 27 34 49 
2.040816 0.734694 -10.122449 26 34 49 
2.000000 0.705882 -9.725491 27 34 49 
2.039216 0.705882 -9.725491 29 35 52 
2.038461 0.692308 -9.538462 30 43 65 
2.076923 0.692308 -9.538462 43 63 101 
0.839695 0.274809 -3.786260 71 103 158 
0.854962 0.274809 -3.786260 112 156 216 
2.072727 0.654545 -9.018182 149 201 248 
3.222222 1.000000 -13.777778 171 226 255 
2.805195 0.467532 -6.441558 182 239 255 
2.831169 0.467532 -6.441558 180 238 254 
7.250000 1.125000 -15.500000 173 234 252 
7.312500 1.125000 -15.500000 172 234 252 
7.375000 1.125000 -15.500000 172 234 252 
7.437500 1.125000 -15.500000 173 234 253 
7.500000 1.125000 -15.500000 174 234 254 
7.562500 1.125000 -15.500000 173 234 253 
7.625000 1.125000 -15.500000 172 233 253 
7.687500 1.125000 -15.500000 171 233 252 
7.750000 1.125000 -15.500000 171 234 252 
7.812500 1.125000 -15.500000 172 234 251 
7.875000 1.125000 -15.500000 174 235 251 
7.937500 1.125000 -15.500000 176 236 251 
8.000000 1.125000 -15.500000 176 235 250 
8.062500 1.125000 -15.500000 177 236 250 
8.125000 1.125000 -15.500000 177 236 251 
8.187500 1.125000 -15.500000 177 235 251 
8.250000 1.125000 -15.500000 176 235 251 
8.312500 1.125000 -15.500000 175 234 252 
8.375000 1.125000 -15.500000 175 234 253 
8.437500 1.125000 -15.500000 176 234 253 
8.500000 1.125000 -15.500000 175 234 252 
8.562500 1.125000 -15.500000 175 234 253 
8.625000 1.125000 -15.500000 177 235 254 
8.687500 1.125000 -15.500000 177 236 254 
8.750000 1.125000 -15.500000 176 235 254 
8.812500 1.125000 -15.500000 175 235 253 
8.875000 1.125000 -15.500000 175 234 252 
8.937500 1.125000 -15.500000 174 234 252 
9.000000 1.125000 -15.500000 172 234 252 
9.062500 1.125000 -15.500000 172 234 252 
9.125000 1.125000 -15.500000 173 234 253 
9.187500 1.125000 -15.500000 175 234 254 
8.000000 0.972973 -13.405405 177 234 254 
6.622222 0.800000 -11.022223 177 233 254 
4.687500 0.562500 -7.750000 178 232 254 
2.672566 0.318584 -4.389380 176 231 254 
1.625668 0.192513 -2.652406 173 227 253 
1.636364 0.192513 -2.652406 171 224 252 
1.647059 0.192513 -2.652406 169 221 251 
0.515464 0.350515 -5.113402 43 58 92 
0.536082 0.350515 -5.113402 21 29 56 
0.568421 0.357895 -5.221053 19 24 42 
0.589474 0.357895 -5.221053 18 23 38 
0.610526 0.357895 -5.221053 18 24 37 
0.631579 0.357895 -5.221053 17 23 36 
0.652632 0.357895 -5.221053 18 23 36 
0.730435 0.295652 -4.313044 18 20 37 
0.747826 0.295652 -4.313044 17 20 36 
2.046512 0.790698 -11.534883 16 21 36 
2.093023 0.790698 -11.534883 15 22 36 
2.044445 0.755556 -11.022223 14 21 35 
2.088889 0.755556 -11.022223 16 21 35 
2.042553 0.723404 -10.553191 16 21 34 
2.085106 0.723404 -10.553191 16 22 34 
2.040816 0.693878 -10.122449 16 22 34 
2.081633 0.693878 -10.122449 16 20 34 
2.122449 0.693878 -10.122449 18 22 37 
2.078431 0.666667 -9.725491 22 32 51 
2.117647 0.666667 -9.725491 39 57 92 
2.156863 0.666667 -9.725491 71 100 154 
2.113208 0.641509 -9.358491 110 152 212 
2.150943 0.641509 -9.358491 146 198 246 
2.188679 0.641509 -9.358491 170 225 254 
2.226415 0.641509 -9.358491 182 237 255 
3.006896 0.468966 -6.841379 180 238 254 
7.312500 1.062500 -15.500000 172 234 253 
7.375000 1.062500 -15.500000 171 234 253 
7.437500 1.062500 -15.500000 172 234 253 
7.500000 1.062500 -15.500000 173 234 253 
7.562500 1.062500 -15.500000 173 234 253 
7.625000 1.062500 -15.500000 173 235 253 
7.687500 1.062500 -15.500000 173 235 253 
7.750000 1.062500 -15.500000 172 235 253 
7.812500 1.062500 -15.500000 173 235 253 
7.875000 1.062500 -15.500000 175 236 253 
7.937500 1.062500 -15.500000 177 237 254 
8.000000 1.062500 -15.500000 178 237 253 
8.062500 1.062500 -15.500000 178 236 253 
8.125000 1.062500 -15.500000 179 237 254 
8.187500 1.062500 -15.500000 179 237 254 
8.250000 1.062500 -15.500000 178 236 254 
8.312500 1.062500 -15.500000 178 236 254 
8.375000 1.062500 -15.500000 178 236 253 
8.437500 1.062500 -15.500000 178 236 253 
8.500000 1.062500 -15.500000 177 235 252 
8.562500 1.062500 -15.500000 177 236 253 
8.625000 1.062500 -15.500000 178 237 254 
8.687500 1.062500 -15.500000 178 238 255 
8.750000 1.062500 -15.500000 177 237 254 
8.812500 1.062500 -15.500000 178 236 253 
8.875000 1.062500 -15.500000 177 236 252 
8.937500 1.062500 -15.500000 176 236 252 
9.000000 1.062500 -15.500000 175 235 252 
9.062500 1.062500 -15.500000 175 235 251 
9.125000 1.062500 -15.500000 176 236 253 
8.400000 0.971429 -14.171429 178 236 254 
7.219512 0.829268 -12.097561 178 235 253 
1.621622 0.183784 -2.681081 180 231 253 
1.632432 0.183784 -2.681081 178 230 253 
1.625668 0.181818 -2.652406 173 225 251 
1.636364 0.181818 -2.652406 170 221 250 
1.647059 0.181818 -2.652406 167 218 249 
0.484211 0.336842 -5.221053 73 92 121 
0.500000 0.333333 -5.166667 44 62 90 
0.515464 0.329897 -5.113402 19 32 57 
0.547368 0.336842 -5.221053 9 16 36 
0.568421 0.336842 -5.221053 10 14 29 
0.589474 0.336842 -5.221053 10 13 26 
0.610526 0.336842 -5.221053 10 15 27 
0.631579 0.336842 -5.221053 11 14 27 
0.652632 0.336842 -5.221053 12 13 26 
2.216216 0.864865 -13.405405 13 11 25 
2.048780 0.780488 -12.097561 11 11 24 
2.097561 0.780488 -12.097561 10 11 24 
2.146342 0.780488 -12.097561 8 11 24 
2.093023 0.744186 -11.534883 8 12 25 
2.139535 0.744186 -11.534883 8 12 24 
2.088889 0.711111 -11.022223 9 13 25 
2.133333 0.711111 -11.022223 9 13 24 
2.085106 0.680851 -10.553191 10 14 23 
2.127660 0.680851 -10.553191 9 13 23 
2.081633 0.653061 -10.122449 10 12 24 
2.122449 0.653061 -10.122449 13 14 29 
2.163265 0.653061 -10.122449 18 26 44 
2.117647 0.627451 -9.725491 36 52 84 
2.156863 0.627451 -9.725491 70 95 149 
2.196079 0.627451 -9.725491 108 147 208 
2.150943 0.603774 -9.358491 144 196 245 
2.188679 0.603774 -9.358491 167 225 254 
2.226415 0.603774 -9.358491 180 238 255 
2.264151 0.603774 -9.358491 187 240 255 
7.375000 1.000000 -15.500000 175 236 254 
7.437500 1.000000 -15.500000 175 235 253 
7.500000 1.000000 -15.500000 177 236 253 
7.562500 1.000000 -15.500000 177 236 253 
7.625000 1.000000 -15.500000 178 237 254 
7.687500 1.000000 -15.500000 178 237 254 
7.750000 1.000000 -15.500000 177 237 254 
7.812500 1.000000 -15.500000 177 237 254 
7.875000 1.000000 -15.500000 179 238 254 
7.937500 1.000000 -15.500000 180 238 254 
8.000000 1.000000 -15.500000 179 237 253 
8.062500 1.000000 -15.500000 180 237 253 
8.125000 1.000000 -15.500000 181 238 254 
8.187500 1.000000 -15.500000 180 237 254 
8.250000 1.000000 -15.500000 180 237 254 
8.312500 1.000000 -15.500000 180 237 254 
8.375000 1.000000 -15.500000 180 237 254 
8.437500 1.000000 -15.500000 179 236 253 
8.500000 1.000000 -15.500000 178 236 252 
8.562500 1.000000 -15.500000 178 236 252 
8.625000 1.000000 -15.500000 178 237 254 
8.687500 1.000000 -15.500000 178 238 254 
8.750000 1.000000 -15.500000 177 238 253 
8.812500 1.000000 -15.500000 178 237 253 
8.875000 1.000000 -15.500000 179 236 252 
8.937500 1.000000 -15.500000 177 236 252 
9.000000 1.000000 -15.500000 176 236 252 
9.062500 1.000000 -15.500000 177 236 252 
9.125000 1.000000 -15.500000 178 236 253 
7.538462 0.820513 -12.717949 179 236 254 
1.635359 0.176796 -2.740331 179 234 253 
1.628415 0.174863 -2.710382 178 230 252 
1.621622 0.172973 -2.681081 178 229 253 
1.632432 0.172973 -2.681081 175 226 254 
1.643243 0.172973 -2.681081 171 222 253 
1.654054 0.172973 -2.681081 168 218 251 
1.664865 0.172973 -2.681081 166 216 249 
0.473118 0.322581 -5.333333 54 65 85 
0.484211 0.315789 -5.221053 40 53 71 
0.516129 0.322581 -5.333333 22 35 51 
0.537634 0.322581 -5.333333 10 19 34 
0.559140 0.322581 -5.333333 8 14 26 
0.580645 0.322581 -5.333333 10 13 23 
0.602151 0.322581 -5.333333 10 13 23 
0.610526 0.315789 -5.221053 10 13 24 
0.631579 0.315789 -5.221053 10 12 25 
0.652632 0.315789 -5.221053 11 10 24 
0.673684 0.315789 -5.221053 11 10 23 
2.250000 0.937500 -15.500000 7 11 22 
2.171429 0.857143 -14.171429 9 11 20 
2.437500 0.937500 -15.500000 9 10 20 
2.500000 0.937500 -15.500000 10 10 20 
2.342857 0.857143 -14.171429 10 10 20 
2.270270 0.810811 -13.405405 9 9 20 
2.205128 0.769231 -12.717949 8 9 20 
2.256410 0.769231 -12.717949 7 9 21 
2.195122 0.731707 -12.097561 7 10 21 
2.139535 0.697674 -11.534883 7 9 21 
2.186047 0.697674 -11.534883 7 11 23 
2.133333 0.666667 -11.022223 8 12 22 
2.177778 0.666667 -11.022223 8 11 20 
2.127660 0.638298 -10.553191 7 10 19 
2.170213 0.638298 -10.553191 9 11 23 
2.122449 0.612245 -10.122449 14 15 30 
2.163265 0.612245 -10.122449 19 26 42 
2.204082 0.612245 -10.122449 35 50 80 
2.244898 0.612245 -10.122449 67 91 144 
2.196079 0.588235 -9.725491 105 142 204 
2.235294 0.588235 -9.725491 143 193 244 
2.188679 0.566038 -9.358491 165 223 255 
2.226415 0.566038 -9.358491 180 238 255 
2.181818 0.545455 -9.018182 187 241 255 
2.218182 0.545455 -9.018182 189 241 254 
7.437500 0.937500 -15.500000 179 237 254 
7.500000 0.937500 -15.500000 180 237 254 
7.562500 0.937500 -15.500000 181 238 254 
7.625000 0.937500 -15.500000 181 237 254 
7.687500 0.937500 -15.500000 180 237 254 
7.750000 0.937500 -15.500000 179 237 254 
7.812500 0.937500 -15.500000 179 237 254 
7.875000 0.937500 -15.500000 179 238 254 
7.937500 0.937500 -15.500000 180 237 254 
8.000000 0.937500 -15.500000 179 237 253 
8.062500 0.937500 -15.500000 180 237 254 
8.125000 0.937500 -15.500000 181 238 254 
8.187500 0.937500 -15.500000 180 237 254 
8.250000 0.937500 -15.500000 179 237 254 
8.312500 0.937500 -15.500000 179 236 254 
8.375000 0.937500 -15.500000 178 235 253 
8.437500 0.937500 -15.500000 179 235 253 
8.500000 0.937500 -15.500000 179 235 254 
8.562500 0.937500 -15.500000 178 235 254 
8.625000 0.937500 -15.500000 178 235 254 
8.687500 0.937500 -15.500000 178 236 254 
8.750000 0.937500 -15.500000 177 235 254 
8.812500 0.937500 -15.500000 177 234 253 
8.875000 0.937500 -15.500000 178 235 254 
8.937500 0.937500 -15.500000 176 235 254 
9.000000 0.937500 -15.500000 174 235 253 
9.062500 0.937500 -15.500000 175 235 254 
7.487179 0.769231 -12.717949 176 234 255 
1.642458 0.167598 -2.770950 178 233 255 
1.635359 0.165746 -2.740331 178 230 254 
1.628415 0.163934 -2.710382 176 227 254 
1.639344 0.163934 -2.710382 174 223 254 
1.650273 0.163934 -2.710382 171 220 253 
1.661202 0.163934 -2.710382 167 216 252 
1.672131 0.163934 -2.710382 165 213 250 
1.664865 0.162162 -2.681081 165 213 249 
0.430108 0.301075 -5.333333 47 54 63 
0.451613 0.301075 -5.333333 42 49 60 
0.473118 0.301075 -5.333333 35 44 55 
0.494624 0.301075 -5.333333 27 37 46 
0.527473 0.307692 -5.450550 21 29 37 
0.549451 0.307692 -5.450550 16 22 29 
0.571429 0.307692 -5.450550 16 19 26 
0.981818 0.509091 -9.018182 16 19 25 
1.018182 0.509091 -9.018182 16 19 26 
1.054545 0.509091 -9.018182 15 19 29 
1.090909 0.509091 -9.018182 15 17 29 
1.087719 0.491228 -8.701755 16 16 28 
1.122807 0.491228 -8.701755 16 16 28 
1.157895 0.491228 -8.701755 14 15 27 
1.192982 0.491228 -8.701755 14 16 28 
2.187500 0.875000 -15.500000 13 16 28 
2.250000 0.875000 -15.500000 13 15 27 
2.312500 0.875000 -15.500000 12 15 24 
2.375000 0.875000 -15.500000 12 15 24 
2.437500 0.875000 -15.500000 13 14 23 
2.500000 0.875000 -15.500000 13 13 23 
2.562500 0.875000 -15.500000 13 13 22 
2.625000 0.875000 -15.500000 13 13 22 
2.324324 0.756757 -13.405405 12 14 22 
2.256410 0.717949 -12.717949 11 13 22 
2.307692 0.717949 -12.717949 10 13 22 
2.243902 0.682927 -12.097561 10 12 23 
2.186047 0.651163 -11.534883 10 12 24 
2.232558 0.651163 -11.534883 10 13 24 
2.177778 0.622222 -11.022223 10 13 23 
2.222222 0.622222 -11.022223 11 13 24 
2.170213 0.595745 -10.553191 13 15 27 
2.212766 0.595745 -10.553191 18 19 34 
2.163265 0.571429 -10.122449 23 29 44 
2.204082 0.571429 -10.122449 35 48 76 
2.244898 0.571429 -10.122449 64 86 137 
2.285714 0.571429 -10.122449 103 139 200 
2.235294 0.549020 -9.725491 142 191 243 
2.274510 0.549020 -9.725491 164 222 255 
2.226415 0.528302 -9.358491 178 236 255 
2.264151 0.528302 -9.358491 185 240 254 
2.218182 0.509091 -9.018182 186 241 254 
2.339623 0.528302 -9.358491 185 240 253 
7.687500 0.875000 -15.500000 176 234 254 
7.750000 0.875000 -15.500000 175 234 254 
7.812500 0.875000 -15.500000 175 234 254 
7.875000 0.875000 -15.500000 174 234 255 
7.937500 0.875000 -15.500000 174 233 254 
8.000000 0.875000 -15.500000 175 233 255 
8.062500 0.875000 -15.500000 176 233 255 
8.125000 0.875000 -15.500000 175 233 255 
8.187500 0.875000 -15.500000 174 232 255 
8.250000 0.875000 -15.500000 173 231 254 
8.312500 0.875000 -15.500000 172 230 254 
8.375000 0.875000 -15.500000 171 230 253 
8.437500 0.875000 -15.500000 171 229 253 
8.500000 0.875000 -15.500000 171 229 254 
8.562500 0.875000 -15.500000 170 228 254 
8.625000 0.875000 -15.500000 170 227 255 
8.687500 0.875000 -15.500000 170 227 255 
8.750000 0.875000 -15.500000 169 226 255 
8.812500 0.875000 -15.500000 168 227 254 
8.875000 0.875000 -15.500000 167 227 254 
8.937500 0.875000 -15.500000 165 226 254 
8.228572 0.800000 -14.171429 165 226 254 
7.435897 0.717949 -12.717949 165 226 255 
1.668571 0.160000 -2.834286 166 224 255 
1.661017 0.158192 -2.802260 167 222 255 
1.653631 0.156425 -2.770950 166 219 254 
1.664804 0.156425 -2.770950 166 216 254 
1.657459 0.154696 -2.740331 163 211 252 
1.668508 0.154696 -2.740331 158 206 248 
1.679558 0.154696 -2.740331 154 202 243 
1.672131 0.153005 -2.710382 154 200 241 
1.683060 0.153005 -2.710382 154 199 241 
0.406780 0.440678 -8.406779 38 47 70 
0.440678 0.440678 -8.406779 36 47 68 
0.491228 0.456140 -8.701755 35 45 65 
0.526316 0.456140 -8.701755 34 42 61 
0.581818 0.472727 -9.018182 33 40 56 
0.618182 0.472727 -9.018182 39 45 57 
0.654545 0.472727 -9.018182 48 53 61 
0.690909 0.472727 -9.018182 50 56 63 
0.430108 0.279570 -5.333333 47 52 61 
0.451613 0.279570 -5.333333 42 48 58 
0.785714 0.464286 -8.857142 38 44 53 
0.836364 0.472727 -9.018182 33 39 46 
0.905660 0.490566 -9.358491 34 38 43 
0.943396 0.490566 -9.358491 33 35 40 
1.019608 0.509804 -9.725491 33 33 40 
1.058824 0.509804 -9.725491 32 33 41 
1.098039 0.509804 -9.725491 30 33 42 
1.094340 0.490566 -9.358491 29 33 42 
1.132075 0.490566 -9.358491 29 32 41 
1.169811 0.490566 -9.358491 32 32 42 
1.163636 0.472727 -9.018182 32 31 42 
1.157895 0.456140 -8.701755 30 30 40 
1.192982 0.456140 -8.701755 29 30 40 
2.187500 0.812500 -15.500000 28 29 39 
2.250000 0.812500 -15.500000 28 28 38 
2.312500 0.812500 -15.500000 28 28 37 
2.375000 0.812500 -15.500000 28 28 37 
2.437500 0.812500 -15.500000 27 27 36 
2.500000 0.812500 -15.500000 27 27 35 
2.562500 0.812500 -15.500000 26 26 35 
2.378378 0.702703 -13.405405 23 25 30 
2.307692 0.666667 -12.717949 25 26 32 
2.358974 0.666667 -12.717949 24 25 33 
2.410256 0.666667 -12.717949 24 24 34 
2.232558 0.604651 -11.534883 24 25 34 
2.279070 0.604651 -11.534883 24 25 34 
2.222222 0.577778 -11.022223 23 24 34 
2.266667 0.577778 -11.022223 28 28 40 
2.212766 0.553191 -10.553191 33 34 47 
2.255319 0.553191 -10.553191 37 41 56 
2.204082 0.530612 -10.122449 46 56 84 
2.244898 0.530612 -10.122449 68 88 135 
2.285714 0.530612 -10.122449 102 136 193 
2.326531 0.530612 -10.122449 139 187 238 
2.367347 0.530612 -10.122449 161 218 253 
2.313725 0.509804 -9.725491 174 233 254 
2.352941 0.509804 -9.725491 180 239 253 
2.301887 0.490566 -9.358491 183 239 254 
7.875000 0.812500 -15.500000 157 216 253 
7.937500 0.812500 -15.500000 156 215 252 
8.000000 0.812500 -15.500000 157 215 253 
8.062500 0.812500 -15.500000 157 215 253 
8.250000 0.812500 -15.500000 153 210 252 
8.312500 0.812500 -15.500000 150 210 252 
8.437500 0.812500 -15.500000 148 207 251 
8.500000 0.812500 -15.500000 146 205 249 
8.625000 0.812500 -15.500000 146 204 250 
8.687500 0.812500 -15.500000 145 202 249 
8.171429 0.742857 -14.171429 137 198 248 
1.684211 0.152047 -2.900585 136 197 247 
1.676301 0.150289 -2.867052 137 196 248 
1.668571 0.148571 -2.834286 138 195 248 
1.680000 0.148571 -2.834286 138 191 246 
1.672316 0.146893 -2.802260 136 188 244 
1.683616 0.146893 -2.802260 135 183 239 
1.694915 0.146893 -2.802260 130 177 231 
1.706215 0.146893 -2.802260 127 173 225 
1.698324 0.145251 -2.770950 123 169 218 
1.709497 0.145251 -2.770950 122 165 213 
1.720670 0.145251 -2.770950 122 164 213 
-0.562500 0.750000 -15.500000 40 43 60 
-0.500000 0.750000 -15.500000 38 40 56 
-0.437500 0.750000 -15.500000 38 41 55 
-0.375000 0.750000 -15.500000 39 42 54 
-0.312500 0.750000 -15.500000 40 42 55 
-0.250000 0.750000 -15.500000 43 44 57 
-0.187500 0.750000 -15.500000 46 46 60 
-0.125000 0.750000 -15.500000 46 48 62 
-0.062500 0.750000 -15.500000 41 45 58 
0.000000 0.750000 -15.500000 33 37 52 
0.062500 0.750000 -15.500000 26 31 47 
0.125000 0.750000 -15.500000 23 29 46 
0.250000 0.750000 -15.500000 25 32 51 
0.750000 0.750000 -15.500000 27 34 56 
0.440678 0.406780 -8.406779 25 34 55 
0.491228 0.421053 -8.701755 25 34 55 
0.526316 0.421053 -8.701755 25 32 53 
0.581818 0.436364 -9.018182 27 33 51 
0.618182 0.436364 -9.018182 36 40 55 
0.654545 0.436364 -9.018182 50 54 65 
0.690909 0.436364 -9.018182 62 65 75 
0.754717 0.452830 -9.358491 65 67 78 
0.792453 0.452830 -9.358491 64 67 78 
0.830189 0.452830 -9.358491 62 65 75 
0.901961 0.470588 -9.725491 61 63 71 
0.979592 0.489796 -10.122449 61 63 68 
1.020408 0.489796 -10.122449 63 62 67 
1.061224 0.489796 -10.122449 62 61 67 
1.102041 0.489796 -10.122449 59 60 67 
1.142857 0.489796 -10.122449 56 60 67 
1.183674 0.489796 -10.122449 56 59 66 
1.224490 0.489796 -10.122449 57 58 65 
1.265306 0.489796 -10.122449 60 58 65 
1.254902 0.470588 -9.725491 60 58 66 
1.294118 0.470588 -9.725491 59 57 65 
2.125000 0.750000 -15.500000 60 59 66 
2.187500 0.750000 -15.500000 60 58 66 
2.250000 0.750000 -15.500000 59 56 64 
2.312500 0.750000 -15.500000 56 55 61 
2.375000 0.750000 -15.500000 57 56 62 
2.437500 0.750000 -15.500000 56 55 61 
2.500000 0.750000 -15.500000 55 54 61 
2.562500 0.750000 -15.500000 54 53 59 
2.625000 0.750000 -15.500000 52 52 56 
2.432432 0.648649 -13.405405 54 52 55 
2.358974 0.615385 -12.717949 53 51 55 
2.410256 0.615385 -12.717949 51 50 55 
2.341463 0.585366 -12.097561 51 49 55 
2.279070 0.558140 -11.534883 49 48 53 
2.222222 0.533333 -11.022223 49 48 54 
2.266667 0.533333 -11.022223 56 55 62 
2.311111 0.533333 -11.022223 61 60 69 
2.255319 0.510638 -10.553191 63 66 79 
2.297872 0.510638 -10.553191 69 76 101 
2.244898 0.489796 -10.122449 79 95 137 
2.285714 0.489796 -10.122449 103 133 185 
2.326531 0.489796 -10.122449 135 178 229 
2.367347 0.489796 -10.122449 156 210 250 
2.408163 0.489796 -10.122449 167 225 255 
5.900709 0.680851 -14.070922 146 203 249 
5.957447 0.680851 -14.070922 144 201 249 
1.712575 0.143713 -2.970060 94 145 216 
1.684211 0.140351 -2.900585 93 143 215 
1.676301 0.138728 -2.867052 94 143 214 
1.687861 0.138728 -2.867052 93 140 212 
1.699422 0.138728 -2.867052 92 137 209 
1.710983 0.138728 -2.867052 89 133 204 
1.722543 0.138728 -2.867052 87 128 193 
1.714286 0.137143 -2.834286 84 122 182 
1.725714 0.137143 -2.834286 80 119 175 
1.737143 0.137143 -2.834286 79 116 169 
1.728814 0.135593 -2.802260 78 114 164 
1.740113 0.135593 -2.802260 78 112 162 
-0.625000 0.687500 -15.500000 28 36 62 
